ply
format ascii 1.0
element vertex 1069
property float x
property float y
property float z
property uchar red
property uchar green
property uchar blue
end_header
-29.890057 -37.767399 106.658585 110 106 87 
-29.626328 -37.624878 106.256104 103 103 84 
-29.327829 -37.436520 105.724152 112 112 93 
-29.214212 -37.483433 105.856644 115 120 101 
-29.063845 -37.483433 105.856644 123 131 111 
-28.877289 -37.436520 105.724152 129 138 118 
-28.372015 -36.973770 104.417305 127 137 117 
-28.223690 -36.973770 104.417305 125 136 116 
12.501268 -16.426018 46.388577 105 122 110 
12.567163 -16.426018 46.388577 105 122 110 
12.605369 -16.390017 46.286903 106 123 111 
13.693866 -15.751332 44.483200 170 167 139 
13.728137 -15.718224 44.389702 179 178 157 
13.783950 -15.709969 44.366386 183 182 164 
13.825188 -15.685254 44.296593 186 185 170 
13.851793 -15.644237 44.180752 188 188 176 
13.914552 -15.644237 44.180752 187 187 175 
13.977310 -15.644237 44.180752 185 185 173 
14.559460 -15.868318 44.813580 183 183 164 
14.630878 -15.876740 44.837368 177 177 160 
14.789661 -15.910521 44.932766 161 163 184 
14.853488 -15.910521 44.932766 170 171 193 
14.917315 -15.910521 44.932766 168 170 191 
15.005086 -15.935950 45.004581 154 156 178 
15.085088 -15.952949 45.052586 149 151 159 
15.165261 -15.969984 45.100693 163 164 158 
15.326122 -16.004162 45.197216 187 187 175 
15.365661 -15.978515 45.124786 183 184 172 
15.429760 -15.978515 45.124786 183 183 166 
15.649919 -16.072960 45.391510 184 182 164 
15.705957 -16.064329 45.367130 184 182 163 
15.770401 -16.064329 45.367130 184 182 163 
15.834846 -16.064329 45.367130 182 180 161 
15.916385 -16.081602 45.415913 169 167 149 
15.998100 -16.098913 45.464802 117 123 112 
16.106026 -16.142353 45.587479 113 120 110 
16.127264 -16.098913 45.464802 107 121 107 
16.183138 -16.090252 45.440346 102 122 104 
-32.290516 -38.490677 109.139015 201 197 177 
-32.177059 -38.540474 109.280205 201 197 177 
-32.021828 -38.540474 109.280205 199 195 175 
-31.702545 -38.342068 108.717628 197 194 173 
-31.147247 -37.854874 107.336212 195 192 171 
-30.799103 -37.615891 106.658585 194 191 171 
-30.493587 -37.426865 106.122612 193 189 171 
-30.342840 -37.426865 106.122612 191 188 168 
-30.192095 -37.426865 106.122612 190 187 165 
-29.891140 -37.239731 105.592003 188 185 164 
-29.928200 -37.473946 106.256104 183 180 161 
-29.814766 -37.521141 106.389923 116 113 94 
-29.551983 -37.379906 105.989464 104 101 86 
-29.254602 -37.193241 105.460175 112 109 95 
-29.104795 -37.193241 105.460175 116 119 101 
-28.991184 -37.239731 105.592003 123 130 111 
-28.877289 -37.286339 105.724152 129 137 117 
-28.372015 -36.825447 104.417305 127 137 116 
-28.258621 -36.871021 104.546532 125 136 116 
12.501268 -16.360125 46.388577 105 122 110 
12.567163 -16.360125 46.388577 105 122 110 
12.605369 -16.324266 46.286903 106 123 111 
13.742580 -15.671638 44.436401 180 179 158 
13.798444 -15.663399 44.413040 183 182 164 
13.839703 -15.638733 44.343098 186 186 172 
13.851793 -15.581478 44.180752 188 188 178 
14.567187 -15.813049 44.837368 183 182 164 
14.638649 -15.821447 44.861179 176 175 159 
14.797532 -15.855128 44.956680 160 162 184 
14.861393 -15.855128 44.956680 170 172 194 
14.933201 -15.863570 44.980618 167 169 190 
15.013084 -15.880483 45.028572 152 154 176 
15.093138 -15.897430 45.076626 150 151 157 
15.334327 -15.948493 45.221413 186 187 173 
15.373873 -15.922921 45.148903 183 184 170 
15.438006 -15.922921 45.148903 183 183 165 
15.577070 -15.999885 45.367130 183 183 164 
15.658333 -16.017088 45.415913 184 182 163 
15.714397 -16.008482 45.391510 184 182 163 
15.770401 -15.999885 45.367130 184 182 163 
15.851871 -16.017088 45.415913 181 179 160 
15.924947 -16.025705 45.440346 164 162 144 
16.023973 -16.060261 45.538330 113 120 109 
16.114721 -16.086277 45.612095 113 120 110 
16.153347 -16.060261 45.538330 106 122 107 
16.200567 -16.042965 45.489285 103 122 105 
-32.248852 -38.286182 108.998192 201 197 177 
-32.177059 -38.385242 109.280205 201 197 177 
-31.980453 -38.335648 109.139015 199 195 176 
-31.702545 -38.187634 108.717628 198 194 174 
-31.186874 -37.750370 107.472771 196 193 172 
-30.760263 -37.417137 106.524086 194 190 172 
-30.417162 -37.182697 105.856644 193 189 172 
-30.266792 -37.182697 105.856644 191 188 169 
-30.116425 -37.182697 105.856644 190 187 165 
-29.742428 -36.905212 105.066666 189 185 163 
-29.815687 -37.182697 105.856644 185 181 164 
-29.665319 -37.182697 105.856644 125 121 104 
-29.478010 -37.136158 105.724152 106 104 90 
-29.181738 -36.951172 105.197510 111 111 97 
-28.996197 -36.905212 105.066666 114 118 102 
-28.846951 -36.905212 105.066666 121 128 110 
-28.805185 -37.043434 105.460175 129 137 117 
-28.407127 -36.722515 104.546532 127 136 116 
-28.258621 -36.722515 104.546532 126 136 116 
-28.110113 -36.722515 104.546532 121 136 114 
12.501268 -16.294230 46.388577 105 122 109 
12.567163 -16.294230 46.388577 105 122 109 
12.598465 -16.249611 46.261555 106 123 110 
13.820242 -15.624956 44.483200 185 182 164 
13.854248 -15.592113 44.389702 187 185 172 
13.859041 -15.526840 44.203873 187 187 177 
14.574924 -15.757722 44.861179 182 182 164 
14.654213 -15.774477 44.908878 172 173 156 
14.797532 -15.791267 44.956680 162 164 185 
14.869307 -15.799676 44.980618 170 171 193 
14.941157 -15.808093 45.004581 167 168 190 
15.013084 -15.816520 45.028572 152 154 176 
15.101196 -15.841853 45.100693 151 152 157 
15.181472 -15.858788 45.148903 168 169 163 
15.221200 -15.833400 45.076626 183 184 175 
15.342540 -15.892764 45.245636 185 186 170 
15.382094 -15.867268 45.173050 183 184 168 
15.446262 -15.867268 45.173050 183 183 164 
15.585441 -15.944004 45.391510 183 183 164 
15.666756 -15.961157 45.440346 184 182 163 
15.731303 -15.961157 45.440346 184 182 163 
15.787359 -15.952576 45.415913 184 182 163 
15.868936 -15.969748 45.464802 180 177 158 
15.933517 -15.969748 45.464802 159 158 141 
16.041267 -16.012838 45.587479 111 118 108 
16.123426 -16.030142 45.636738 114 121 110 
16.170782 -16.012838 45.587479 105 122 108 
16.218033 -15.995575 45.538330 103 122 107 
-32.177059 -38.230007 109.280205 201 197 178 
-31.980453 -38.180614 109.139015 200 196 177 
-31.661797 -37.984314 108.577888 198 194 174 
-31.226603 -37.645603 107.609680 196 193 172 
-30.760263 -37.265823 106.524086 195 191 171 
-30.379093 -36.985977 105.724152 193 188 171 
-30.304770 -37.078793 105.989464 191 187 169 
-30.154211 -37.078793 105.989464 190 187 165 
-29.705482 -36.710308 104.936150 189 186 164 
-29.704018 -36.893631 105.460175 186 182 165 
-29.554213 -36.893631 105.460175 132 128 111 
-29.367743 -36.847626 105.328674 110 107 94 
-29.109238 -36.710308 104.936150 111 109 98 
-28.960176 -36.710308 104.936150 113 116 102 
-28.775370 -36.664761 104.805954 119 126 109 
-28.733442 -36.801739 105.197510 128 135 118 
-28.407127 -36.574005 104.546532 128 136 116 
-28.293638 -36.619328 104.676086 127 135 116 
-28.144945 -36.619328 104.676086 122 136 115 
12.501268 -16.228334 46.388577 106 123 110 
12.560266 -16.219427 46.363117 105 122 109 
12.591570 -16.175039 46.236233 106 123 110 
13.827523 -15.569967 44.506638 183 183 164 
13.861532 -15.537223 44.413040 187 187 172 
13.866298 -15.472145 44.227016 188 188 175 
13.936419 -15.480249 44.250183 186 186 173 
13.999275 -15.480249 44.250183 184 184 171 
14.590421 -15.710684 44.908878 181 181 164 
14.662008 -15.719041 44.932766 170 170 153 
14.805412 -15.735781 44.980618 165 166 188 
14.877229 -15.744164 45.004581 170 171 193 
14.957094 -15.760959 45.052586 166 168 189 
15.013084 -15.752557 45.028572 150 152 174 
15.101196 -15.777788 45.100693 151 152 155 
15.181472 -15.794654 45.148903 169 170 164 
15.229326 -15.777788 45.100693 183 183 173 
15.342540 -15.828493 45.245636 183 183 168 
15.382094 -15.803100 45.173050 183 184 168 
15.446262 -15.803100 45.173050 183 183 164 
15.602208 -15.896609 45.440346 183 183 164 
15.683629 -15.913731 45.489285 184 182 163 
15.748246 -15.913731 45.489285 184 182 163 
15.787359 -15.888062 45.415913 184 182 163 
15.886035 -15.922304 45.513794 179 176 157 
15.950687 -15.922304 45.513794 155 154 138 
16.058601 -15.965315 45.636738 111 119 108 
16.132143 -15.973945 45.661404 113 122 110 
16.188253 -15.965315 45.636738 105 122 108 
16.244305 -15.956694 45.612095 103 122 107 
-32.177059 -38.074776 109.280205 201 197 178 
-31.939190 -37.976521 108.998192 200 196 177 
-31.661797 -37.830082 108.577888 199 195 175 
-31.306364 -37.588509 107.884544 196 193 172 
-30.799103 -37.161366 106.658585 195 191 171 
-30.303240 -36.743824 105.460175 193 189 171 
-30.342840 -36.974628 106.122612 191 188 168 
-30.230072 -37.021137 106.256104 190 187 165 
-29.668627 -36.515884 104.805954 189 186 164 
-29.593182 -36.606720 105.066666 187 183 165 
-29.480602 -36.652306 105.197510 141 137 119 
-29.331171 -36.652306 105.197510 112 109 97 
-29.109238 -36.561245 104.936150 110 107 98 
-28.960176 -36.561245 104.936150 112 113 102 
-28.775370 -36.515884 104.805954 117 123 108 
-28.733442 -36.652306 105.197510 127 133 118 
-28.512993 -36.561245 104.936150 127 135 116 
-28.328741 -36.515884 104.805954 128 136 116 
-28.179865 -36.515884 104.805954 124 135 115 
12.494407 -16.153568 46.363117 106 123 109 
12.553375 -16.144709 46.337685 106 123 109 
12.584682 -16.100548 46.210941 107 124 109 
14.021310 -15.441659 44.319832 183 184 169 
14.598182 -15.655214 44.932766 180 181 164 
14.749371 -15.680236 45.004581 159 161 159 
14.805412 -15.671886 44.980618 164 167 188 
14.885159 -15.688594 45.028572 166 169 190 
14.965075 -15.705338 45.076626 165 168 188 
15.021091 -15.696961 45.052586 148 151 172 
15.109262 -15.722116 45.124786 152 152 153 
15.181472 -15.730520 45.148903 173 172 167 
15.229326 -15.713723 45.100693 183 183 173 
15.342540 -15.764222 45.245636 183 183 168 
15.390325 -15.747353 45.197216 183 183 167 
15.454527 -15.747353 45.197216 183 183 164 
15.619012 -15.849113 45.489285 183 183 164 
15.692080 -15.857653 45.513794 184 182 163 
15.756731 -15.857653 45.513794 183 181 162 
15.795851 -15.832062 45.440346 183 181 162 
15.894599 -15.866201 45.538330 177 174 155 
15.959286 -15.866201 45.538330 151 151 135 
16.067282 -15.909082 45.661404 111 120 110 
16.132143 -15.909082 45.661404 113 122 111 
16.197004 -15.909082 45.661404 104 122 108 
16.253080 -15.900488 45.636738 103 122 107 
-32.135487 -37.870552 109.139015 201 197 177 
-31.898031 -37.772949 108.857735 200 196 176 
-31.621153 -37.627483 108.438507 198 195 174 
-31.386534 -37.531124 108.160820 196 193 172 
-30.838039 -37.056648 106.793427 194 191 170 
-30.265455 -36.548389 105.328674 193 189 169 
-30.496086 -37.009861 106.658585 191 188 167 
-30.306314 -36.963188 106.524086 189 186 164 
-29.705482 -36.412186 104.936150 188 185 163 
-29.556421 -36.412186 104.936150 187 183 163 
-29.480602 -36.502876 105.197510 149 145 125 
-29.331171 -36.502876 105.197510 115 113 99 
-29.145443 -36.457474 105.066666 107 106 96 
-28.996197 -36.457474 105.066666 110 112 100 
-28.775370 -36.367008 104.805954 113 120 106 
-28.697704 -36.457474 105.066666 125 132 116 
-28.619650 -36.548389 105.328674 126 134 115 
-28.363932 -36.412186 104.936150 128 136 116 
-28.214870 -36.412186 104.936150 125 136 116 
12.487554 -16.078886 46.337685 106 125 108 
12.546494 -16.070070 46.312279 106 125 108 
12.577801 -16.026140 46.185677 106 125 108 
13.924621 -15.411046 44.413040 187 188 172 
13.987709 -15.411046 44.413040 185 186 171 
14.036038 -15.394857 44.366386 183 184 169 
14.136183 -15.435391 44.483200 182 183 166 
14.338061 -15.517103 44.718689 183 182 165 
14.542089 -15.599686 44.956680 181 180 164 
14.598182 -15.591388 44.932766 180 181 164 
14.757234 -15.624632 45.028572 159 161 161 
14.813300 -15.616307 45.004581 164 166 186 
14.893098 -15.632965 45.052586 165 168 187 
14.981064 -15.658017 45.124786 163 166 185 
15.021091 -15.632965 45.052586 147 149 169 
15.117338 -15.666387 45.148903 153 154 152 
15.181472 -15.666387 45.148903 175 175 169 
15.229326 -15.649657 45.100693 182 183 171 
15.350762 -15.708364 45.269882 182 183 167 
15.390325 -15.683150 45.197216 183 183 166 
15.454527 -15.683150 45.197216 183 183 163 
15.619012 -15.784495 45.489285 183 183 163 
15.692080 -15.793000 45.513794 184 182 163 
15.756731 -15.793000 45.513794 183 181 162 
15.795851 -15.767514 45.440346 183 181 162 
15.894599 -15.801514 45.538330 175 173 154 
15.959286 -15.801514 45.538330 147 148 133 
16.067282 -15.844221 45.661404 111 120 111 
16.132143 -15.844221 45.661404 112 122 112 
16.197004 -15.844221 45.661404 103 122 108 
16.253080 -15.835661 45.636738 103 122 107 
-32.052662 -37.618317 108.857735 201 197 177 
-31.856977 -37.569904 108.717628 200 196 176 
-31.580612 -37.425404 108.299484 199 195 175 
-31.426773 -37.425404 108.299484 197 194 173 
-30.877075 -36.951664 106.928604 194 191 170 
-30.265455 -36.398773 105.328674 192 189 168 
-30.612041 -36.998497 107.064133 190 187 166 
-30.344580 -36.858353 106.658585 189 186 164 
-29.779469 -36.353443 105.197510 187 183 161 
-29.519751 -36.218132 104.805954 187 183 161 
-29.517363 -36.398773 105.328674 157 153 131 
-29.367743 -36.398773 105.328674 118 116 101 
-29.218124 -36.398773 105.328674 105 104 93 
-28.996197 -36.308228 105.066666 109 110 98 
-28.811115 -36.263123 104.936150 113 118 103 
-28.697704 -36.308228 105.066666 125 131 116 
-28.727108 -36.535439 105.724152 126 134 115 
-28.399210 -36.308228 105.066666 128 136 116 
-28.249964 -36.308228 105.066666 125 136 116 
13.946618 -15.372204 44.483200 187 188 172 
14.002433 -15.364113 44.459789 185 186 171 
14.050797 -15.347958 44.413040 183 184 169 
14.151086 -15.388411 44.530102 182 183 166 
14.330476 -15.445405 44.695026 183 182 165 
14.409212 -15.461766 44.742374 182 181 165 
14.542089 -15.535825 44.956680 181 180 164 
14.605950 -15.535825 44.956680 180 180 163 
14.685442 -15.552379 45.004581 163 163 146 
14.765103 -15.568968 45.052586 158 160 162 
14.821196 -15.560669 45.028572 163 166 185 
14.901045 -15.577275 45.076626 165 167 186 
14.989071 -15.602253 45.148903 161 163 182 
15.029107 -15.577275 45.076626 146 149 167 
15.125422 -15.610596 45.173050 154 155 152 
15.181472 -15.602253 45.148903 176 177 171 
15.237462 -15.593918 45.124786 182 183 170 
15.350762 -15.644059 45.269882 182 183 168 
15.398563 -15.627310 45.221413 182 184 166 
15.619012 -15.719878 45.489285 183 183 164 
15.692080 -15.728349 45.513794 184 182 163 
15.795851 -15.702967 45.440346 183 181 162 
15.886035 -15.728349 45.513794 173 171 153 
15.950687 -15.728349 45.513794 140 143 129 
16.067282 -15.779359 45.661404 111 120 111 
16.132143 -15.779359 45.661404 111 122 111 
16.197004 -15.779359 45.661404 103 122 108 
-32.052662 -37.463688 108.857735 201 197 177 
-31.856977 -37.415470 108.717628 200 196 176 
-31.580612 -37.271564 108.299484 199 196 175 
-31.426773 -37.271564 108.299484 197 194 173 
-30.916210 -36.846413 107.064133 194 191 170 
-30.303240 -36.294407 105.460175 193 189 169 
-30.728882 -36.987049 107.472771 190 187 166 
-30.421400 -36.799774 106.928604 189 186 164 
-29.928551 -36.385258 105.724152 188 184 162 
-29.483170 -36.024559 104.676086 187 183 161 
-29.517363 -36.249153 105.328674 162 159 137 
-29.404408 -36.294407 105.460175 121 121 102 
-29.291170 -36.339775 105.592003 102 104 88 
-29.032307 -36.204010 105.197510 107 111 94 
-28.811115 -36.114063 104.936150 109 118 98 
-28.697704 -36.158981 105.066666 124 132 113 
-28.763107 -36.430851 105.856644 127 135 116 
-28.434578 -36.204010 105.197510 128 137 117 
-28.249964 -36.158981 105.066666 125 136 116 
-28.205963 -36.294407 105.460175 124 135 115 
13.890745 -15.317081 44.506638 186 186 170 
13.946618 -15.309015 44.483200 187 187 171 
14.009807 -15.309015 44.483200 185 186 170 
14.065587 -15.300958 44.459789 183 184 168 
14.158549 -15.333239 44.553585 182 183 166 
14.330476 -15.381916 44.695026 182 181 165 
14.401585 -15.390059 44.718689 182 181 165 
14.549833 -15.480203 44.980618 180 179 163 
14.605950 -15.471964 44.956680 179 181 162 
14.685442 -15.488450 45.004581 160 162 143 
14.765103 -15.504971 45.052586 158 160 164 
14.829101 -15.504971 45.052586 163 166 185 
14.909000 -15.521527 45.100693 164 167 186 
14.997087 -15.546428 45.173050 159 162 180 
15.045163 -15.529819 45.124786 147 150 166 
15.133515 -15.554746 45.197216 154 156 150 
15.189590 -15.546428 45.173050 177 179 172 
15.253758 -15.546428 45.173050 181 183 170 
15.350762 -15.579754 45.269882 182 184 168 
15.619012 -15.655261 45.489285 183 183 164 
15.692080 -15.663696 45.513794 184 182 164 
15.795851 -15.638419 45.440346 184 182 164 
15.886035 -15.663696 45.513794 172 169 152 
15.950687 -15.663696 45.513794 136 140 126 
16.067282 -15.714498 45.661404 111 120 110 
16.123426 -15.706008 45.636738 110 121 110 
16.188253 -15.706008 45.636738 103 122 108 
-32.135487 -37.405460 109.139015 201 197 177 
-31.898031 -37.309055 108.857735 200 196 176 
-31.661797 -37.213146 108.577888 199 196 175 
-31.507563 -37.213146 108.577888 197 194 173 
-30.916210 -36.694328 107.064133 195 191 171 
-30.379093 -36.235077 105.724152 193 189 169 
-30.846617 -36.975513 107.884544 190 187 167 
-30.498613 -36.740898 107.199997 189 186 165 
-30.154997 -36.509239 106.524086 188 184 164 
-29.483170 -35.875870 104.676086 187 183 163 
-29.591156 -36.189781 105.592003 166 162 142 
-29.478010 -36.235077 105.724152 124 125 105 
-29.401426 -36.326004 105.989464 100 105 87 
-29.068506 -36.099533 105.328674 107 112 93 
-28.846951 -36.009735 105.066666 111 118 99 
-28.733442 -36.054577 105.197510 125 132 112 
-28.799196 -36.326004 105.989464 127 135 116 
-28.434578 -36.054577 105.197510 128 137 117 
-28.285145 -36.054577 105.197510 124 138 116 
-28.170794 -36.099533 105.328674 123 137 116 
13.864046 -15.294150 44.624195 185 182 166 
13.898067 -15.261901 44.530102 186 185 169 
13.953966 -15.253860 44.506638 187 186 170 
14.017188 -15.253860 44.506638 184 186 170 
14.072994 -15.245828 44.483200 182 184 168 
14.180988 -15.294150 44.624195 182 183 166 
14.338061 -15.326536 44.718689 182 181 165 
14.401585 -15.326536 44.718689 182 181 165 
14.557585 -15.424521 45.004581 180 179 163 
14.613728 -15.416308 44.980618 181 180 164 
14.693271 -15.432743 45.028572 158 158 141 
14.772983 -15.449214 45.076626 160 159 166 
14.837013 -15.449214 45.076626 164 163 184 
14.916965 -15.465719 45.124786 164 165 184 
15.005111 -15.490543 45.197216 158 161 179 
15.061255 -15.482260 45.173050 148 151 165 
15.141617 -15.498837 45.221413 155 157 150 
15.197718 -15.490543 45.197216 178 181 174 
15.270090 -15.498837 45.221413 181 183 170 
15.358994 -15.523767 45.294155 181 183 168 
15.423333 -15.523767 45.294155 182 183 166 
15.627427 -15.599045 45.513794 183 183 164 
15.692080 -15.599045 45.513794 183 181 163 
15.756731 -15.599045 45.513794 183 181 163 
15.787359 -15.565498 45.415913 184 182 165 
15.886035 -15.599045 45.513794 170 168 151 
15.959286 -15.607453 45.538330 133 137 125 
16.067282 -15.649636 45.661404 111 120 110 
16.114721 -15.632735 45.612095 109 121 110 
16.188253 -15.641181 45.636738 103 122 107 
-32.344429 -37.492630 109.848633 200 196 177 
-32.063305 -37.346931 109.421761 200 196 176 
-31.784359 -37.202366 108.998192 199 195 176 
-31.588768 -37.154423 108.857735 197 194 174 
-30.955442 -36.588619 107.199997 195 191 171 
-30.455326 -36.175449 105.989464 193 189 171 
-30.886063 -36.869350 108.022507 190 187 168 
-30.576218 -36.681721 107.472771 190 187 166 
-30.231243 -36.449852 106.793427 189 185 165 
-29.519751 -35.771503 104.805954 189 185 165 
-29.739855 -36.220894 106.122612 171 167 147 
-29.589108 -36.220894 106.122612 130 130 110 
-29.512514 -36.312130 106.389923 102 105 86 
-29.141178 -36.039791 105.592003 108 111 92 
-28.882874 -35.905148 105.197510 112 117 97 
-28.769268 -35.949917 105.328674 125 131 111 
-28.871647 -36.266457 106.256104 128 137 116 
-28.505575 -35.994797 105.460175 129 138 117 
-28.320414 -35.949917 105.328674 124 139 117 
-28.170794 -35.949917 105.328674 122 139 116 
13.739202 -15.303520 44.837368 169 166 138 
13.766358 -15.263013 44.718689 176 173 150 
13.856727 -15.222720 44.600632 184 181 166 
13.898067 -15.198647 44.530102 187 185 169 
13.953966 -15.190639 44.506638 188 186 170 
14.017188 -15.190639 44.506638 184 185 169 
14.080409 -15.190639 44.506638 182 184 167 
14.345656 -15.271097 44.742374 182 181 165 
14.416848 -15.279190 44.766083 181 180 164 
14.557585 -15.360593 45.004581 181 180 164 
14.613728 -15.352413 44.980618 182 182 165 
14.701107 -15.376977 45.052586 156 157 139 
14.788766 -15.401620 45.124786 156 159 168 
14.852865 -15.401620 45.124786 162 166 185 
14.932919 -15.418092 45.173050 163 167 186 
15.013144 -15.434600 45.221413 156 159 178 
15.157845 -15.451142 45.269882 157 159 152 
15.205853 -15.434600 45.221413 181 182 176 
15.278269 -15.442866 45.245636 181 183 170 
15.367233 -15.467721 45.318455 180 183 168 
15.431607 -15.467721 45.318455 182 183 166 
15.627427 -15.534392 45.513794 184 182 164 
15.692080 -15.534392 45.513794 184 182 164 
15.756731 -15.534392 45.513794 183 181 163 
15.795851 -15.509323 45.440346 183 181 165 
15.886035 -15.534392 45.513794 168 165 149 
15.967895 -15.551150 45.562889 129 134 122 
16.075972 -15.593203 45.686100 112 121 111 
16.132143 -15.584774 45.661404 108 121 110 
16.197004 -15.584774 45.661404 103 122 108 
-32.556107 -37.580940 110.567535 200 196 177 
-32.314453 -37.482819 110.278854 200 196 177 
-31.907873 -37.191502 109.421761 199 195 177 
-31.588768 -36.999790 108.857735 197 194 175 
-30.994776 -36.482639 107.336212 195 192 173 
-30.455326 -36.024891 105.989464 194 190 171 
-30.925610 -36.762917 108.160820 191 188 169 
-30.693367 -36.669014 107.884544 190 187 167 
-30.269510 -36.344097 106.928604 189 186 165 
-29.666981 -35.800297 105.328674 189 185 165 
-29.814766 -36.161007 106.389923 175 171 151 
-29.663641 -36.161007 106.389923 136 135 114 
-29.587040 -36.252319 106.658585 103 106 84 
-29.250868 -36.024891 105.989464 109 112 91 
-29.027470 -35.934715 105.724152 111 116 95 
-28.913475 -35.979748 105.856644 125 130 110 
-28.908009 -36.161007 106.389923 130 138 117 
-28.612738 -35.979748 105.856644 130 139 117 
-28.391214 -35.889797 105.592003 125 140 117 
-28.205963 -35.844990 105.460175 123 140 117 
12.650324 -15.706695 46.210941 112 122 109 
13.746499 -15.247923 44.861179 170 167 139 
13.864046 -15.167374 44.624195 184 182 166 
13.898067 -15.135391 44.530102 189 187 170 
13.953966 -15.127418 44.506638 189 186 170 
14.024577 -15.135391 44.530102 184 184 167 
14.095262 -15.143374 44.553585 183 183 166 
14.360868 -15.223668 44.789818 182 181 165 
14.424493 -15.223668 44.789818 181 180 164 
14.565345 -15.304818 45.028572 181 180 164 
14.621513 -15.296664 45.004581 182 181 164 
14.716805 -15.329331 45.100693 155 155 138 
14.796670 -15.345717 45.148903 158 159 172 
14.868751 -15.353924 45.173050 165 165 186 
14.940908 -15.362139 45.197216 164 166 186 
15.021185 -15.378595 45.245636 154 157 176 
15.165974 -15.395087 45.294155 157 161 153 
15.213998 -15.378595 45.245636 181 184 177 
15.294653 -15.395087 45.294155 180 183 168 
15.439891 -15.411614 45.342781 182 182 165 
15.635852 -15.478080 45.538330 184 182 164 
15.692080 -15.469740 45.513794 184 182 164 
15.756731 -15.469740 45.513794 183 181 164 
15.804353 -15.453088 45.464802 183 180 164 
15.903172 -15.486428 45.562889 165 162 146 
15.976511 -15.494785 45.587479 125 131 119 
16.075972 -15.528306 45.686100 111 120 111 
16.140867 -15.528306 45.686100 108 121 110 
16.214533 -15.536709 45.710823 104 122 110 
-32.684448 -37.571411 111.003418 201 197 178 
-32.441509 -37.472927 110.712448 200 196 177 
-32.115875 -37.277500 110.135071 198 195 176 
-31.629526 -36.892700 108.998192 197 194 175 
-31.073744 -36.422729 107.609680 195 192 173 
-30.531944 -35.964584 106.256104 194 190 171 
-30.965258 -36.656212 108.299484 191 188 169 
-30.732616 -36.562462 108.022507 190 187 168 
-30.307875 -36.238079 107.064133 189 186 167 
-29.853098 -35.874332 105.989464 189 186 166 
-29.890057 -36.100815 106.658585 178 175 155 
-29.738548 -36.100815 106.658585 142 140 120 
-29.661943 -36.192207 106.928604 104 104 83 
-29.324455 -35.964584 106.256104 112 112 91 
-29.100311 -35.874332 105.989464 112 115 96 
-28.986122 -35.919403 106.122612 125 128 109 
-28.944464 -36.055290 106.524086 131 138 118 
-28.684629 -35.919403 106.122612 131 140 118 
-28.391214 -35.739803 105.592003 127 140 118 
-28.241220 -35.739803 105.592003 124 140 118 
-28.011265 -35.829380 105.856644 120 138 119 
-27.516083 -35.385944 104.546532 119 137 118 
-27.401487 -35.429794 104.676086 117 138 116 
12.664180 -15.658184 46.261555 114 124 109 
13.753803 -15.192266 44.885017 171 168 140 
13.780950 -15.152011 44.766083 178 175 153 
13.829881 -15.135968 44.718689 183 178 163 
13.864046 -15.103985 44.624195 185 182 166 
13.898067 -15.072137 44.530102 189 189 172 
13.953966 -15.064196 44.506638 187 186 170 
14.039378 -15.088044 44.577099 184 183 168 
14.125061 -15.111968 44.647781 183 182 166 
14.376114 -15.176138 44.837368 182 181 165 
14.439805 -15.176138 44.837368 182 181 165 
14.565345 -15.240855 45.028572 181 181 164 
14.629308 -15.240855 45.028572 180 180 162 
14.732536 -15.281584 45.148903 153 154 137 
14.804583 -15.289756 45.173050 158 160 175 
14.884670 -15.306127 45.221413 165 167 187 
14.948907 -15.306127 45.221413 163 166 185 
15.029235 -15.322532 45.269882 152 156 175 
15.222151 -15.322532 45.269882 183 183 176 
15.302858 -15.338972 45.318455 181 183 169 
15.439891 -15.347205 45.342781 182 182 166 
15.644285 -15.421706 45.562889 184 182 165 
15.709007 -15.421706 45.562889 184 182 164 
15.773728 -15.421706 45.562889 183 181 164 
15.829912 -15.413393 45.538330 182 179 163 
15.920346 -15.438360 45.612095 162 160 143 
15.993774 -15.446701 45.636738 120 126 116 
16.110825 -15.496934 45.785149 112 121 111 
16.175861 -15.496934 45.785149 108 122 111 
16.249706 -15.505339 45.809978 105 122 110 
-32.526768 -37.413731 111.003418 200 196 177 
-32.199841 -37.218105 110.423004 199 195 177 
-31.629526 -36.737869 108.998192 197 194 175 
-31.113379 -36.316135 107.746941 195 192 173 
-30.965258 -36.502373 108.299484 192 188 171 
-30.732616 -36.409016 108.022507 190 187 169 
-30.346336 -36.131790 107.199997 189 186 167 
-29.965893 -35.858753 106.389923 189 185 168 
-29.965727 -36.040318 106.928604 180 176 159 
-29.813835 -36.040318 106.928604 149 146 128 
-29.737228 -36.131790 107.199997 104 102 83 
-29.361387 -35.858753 106.389923 113 110 92 
-29.173519 -35.813648 106.256104 114 115 97 
-29.022583 -35.813648 106.256104 127 127 110 
-29.017649 -35.994755 106.793427 131 137 117 
-28.684629 -35.768654 106.122612 131 140 118 
-28.426748 -35.634354 105.724152 127 141 119 
-28.241220 -35.589813 105.592003 125 141 119 
-28.196968 -35.723778 105.989464 123 139 119 
-28.011265 -35.679008 105.856644 122 137 120 
-27.482071 -35.193882 104.417305 120 136 118 
-27.367575 -35.237438 104.546532 117 137 117 
12.678065 -15.609567 46.312279 116 125 109 
12.743852 -15.609567 46.312279 142 151 135 
13.761115 -15.136550 44.908878 171 168 140 
13.788257 -15.096421 44.789818 179 175 154 
13.844540 -15.088421 44.766083 183 179 163 
13.864046 -15.040597 44.624195 185 183 167 
13.898067 -15.008883 44.530102 188 189 173 
13.961322 -15.008883 44.530102 186 187 171 
14.046791 -15.032656 44.600632 183 184 169 
14.154987 -15.080429 44.742374 182 183 168 
14.391392 -15.128507 44.885017 182 181 165 
14.573113 -15.184986 45.052586 182 181 164 
14.637110 -15.184986 45.052586 178 177 160 
14.748302 -15.233734 45.197216 153 153 138 
14.820434 -15.241890 45.221413 158 161 178 
14.892643 -15.250053 45.245636 165 168 187 
14.956914 -15.250053 45.245636 162 166 185 
15.037293 -15.266407 45.294155 151 154 173 
15.222151 -15.258226 45.269882 181 184 174 
15.319296 -15.291004 45.367130 179 183 167 
15.367233 -15.274597 45.318455 179 183 167 
15.431607 -15.274597 45.318455 183 182 165 
15.661180 -15.373569 45.612095 184 182 164 
15.725971 -15.373569 45.612095 183 181 163 
15.790763 -15.373569 45.612095 183 181 163 
15.864120 -15.381874 45.636738 180 177 161 
15.937557 -15.390189 45.661404 159 157 141 
16.011074 -15.398513 45.686100 117 124 114 
16.128307 -15.448644 45.834835 113 121 111 
16.193415 -15.448644 45.834835 108 122 111 
16.276186 -15.465426 45.884628 105 122 110 
-32.526768 -37.256050 111.003418 200 196 178 
-32.199841 -37.061249 110.423004 199 195 177 
-31.629526 -36.583038 108.998192 198 195 176 
-31.153114 -36.209267 107.884544 195 192 173 
-30.925610 -36.301991 108.160820 193 188 171 
-30.693367 -36.209267 107.884544 191 187 169 
-30.346336 -35.979511 107.199997 189 186 167 
-30.041563 -35.797798 106.658585 189 185 168 
-30.003706 -35.933910 107.064133 182 177 162 
-29.889505 -35.979511 107.199997 153 149 132 
-29.775015 -36.025230 107.336212 103 100 82 
-29.435534 -35.797798 106.658585 112 110 92 
-29.247097 -35.752655 106.524086 113 115 96 
-29.095779 -35.752655 106.524086 125 126 109 
-29.054379 -35.888424 106.928604 131 137 117 
-28.720711 -35.662712 106.256104 131 140 118 
-28.426748 -35.484173 105.724152 128 141 119 
-28.276567 -35.484173 105.724152 125 141 119 
-28.196968 -35.573219 105.989464 123 139 119 
-28.046410 -35.573219 105.989464 122 137 120 
-27.482071 -35.045555 104.417305 120 136 119 
-27.333746 -35.045555 104.417305 118 136 118 
12.698952 -15.569388 46.388577 120 126 110 
12.757841 -15.560843 46.363117 144 150 133 
12.795608 -15.526755 46.261555 164 161 134 
13.408690 -15.475904 46.110043 124 128 141 
13.761115 -15.072757 44.908878 172 169 141 
13.795571 -15.040772 44.813580 179 176 156 
13.859228 -15.040772 44.813580 183 180 164 
13.871374 -14.985125 44.647781 185 184 169 
13.905397 -14.953510 44.553585 188 188 175 
13.976057 -14.961401 44.577099 185 186 172 
14.054212 -14.977208 44.624195 183 184 171 
14.177515 -15.040772 44.813580 182 183 169 
14.414369 -15.088800 44.956680 183 181 165 
14.580890 -15.129059 45.076626 182 180 164 
14.652740 -15.137136 45.100693 176 174 157 
14.764100 -15.185782 45.245636 154 153 141 
14.828371 -15.185782 45.245636 158 162 181 
14.900623 -15.193920 45.269882 164 168 187 
14.964929 -15.193920 45.269882 161 165 184 
15.222151 -15.193920 45.269882 182 183 175 
15.327527 -15.234742 45.391510 182 183 169 
15.358994 -15.202067 45.294155 182 183 169 
15.423333 -15.202067 45.294155 184 182 165 
15.604815 -15.317048 45.636738 184 182 164 
15.669641 -15.317048 45.636738 183 181 163 
15.734468 -15.317048 45.636738 183 181 163 
15.799294 -15.317048 45.636738 183 180 163 
15.889874 -15.341913 45.710823 178 176 160 
15.954806 -15.341913 45.710823 155 153 138 
16.063198 -15.383535 45.834835 115 121 112 
16.154604 -15.408617 45.909565 114 120 112 
16.219818 -15.408617 45.909565 109 122 111 
16.293886 -15.416996 45.934528 106 123 111 
-32.569569 -37.147186 111.149475 201 197 178 
-32.199841 -36.904392 110.423004 200 196 177 
-31.629526 -36.428207 108.998192 199 195 177 
-31.192953 -36.102123 108.022507 196 193 174 
-30.925610 -36.148350 108.160820 193 189 171 
-30.693367 -36.056019 107.884544 191 188 168 
-30.384895 -35.872761 107.336212 190 187 167 
-30.079542 -35.691353 106.793427 189 185 167 
-30.079954 -35.872761 107.336212 183 178 163 
-29.965561 -35.918400 107.472771 158 154 139 
-29.850874 -35.964153 107.609680 100 98 81 
-29.510054 -35.736534 106.928604 111 109 92 
-29.321047 -35.691353 106.793427 111 115 96 
-29.132517 -35.646290 106.658585 121 127 106 
-29.091204 -35.781826 107.064133 129 137 117 
-28.720711 -35.511776 106.256104 131 140 120 
-28.426748 -35.333996 105.724152 128 141 119 
-28.276567 -35.333996 105.724152 125 141 119 
-28.161633 -35.378273 105.856644 123 139 119 
-28.046410 -35.422661 105.989464 122 138 121 
-27.482071 -34.897232 104.417305 121 136 119 
-27.469566 -35.070637 104.936150 119 135 118 
-27.491259 -35.289825 105.592003 118 135 117 
12.619198 -15.486485 46.337685 110 124 108 
12.712914 -15.520539 46.439583 123 128 110 
13.401376 -15.401998 46.084888 127 126 141 
13.761115 -15.008965 44.908878 173 169 142 
13.802894 -14.985065 44.837368 179 177 157 
13.866585 -14.985065 44.837368 182 180 164 
13.886053 -14.937492 44.695026 185 185 170 
13.927435 -14.913820 44.624195 188 188 175 
13.990823 -14.913820 44.624195 185 186 173 
14.083971 -14.945400 44.718689 183 184 171 
14.192574 -14.993023 44.861179 181 182 168 
14.358150 -15.032940 44.980618 183 180 164 
14.429728 -15.040949 45.004581 183 180 164 
14.478230 -15.024940 44.956680 182 179 163 
14.596467 -15.081122 45.124786 181 179 163 
14.676247 -15.097252 45.173050 171 171 154 
14.772013 -15.129615 45.269882 153 154 144 
14.836318 -15.129615 45.269882 157 162 182 
14.908613 -15.137728 45.294155 162 167 187 
15.045361 -15.145848 45.318455 147 152 172 
15.117846 -15.153978 45.342781 149 153 156 
15.222151 -15.129615 45.269882 182 183 173 
15.327527 -15.170264 45.391510 181 183 169 
15.350762 -15.129615 45.269882 181 183 169 
15.415068 -15.129615 45.269882 183 181 164 
15.621694 -15.268719 45.686100 183 181 163 
15.686590 -15.268719 45.686100 183 181 163 
15.751487 -15.268719 45.686100 183 180 162 
15.816383 -15.268719 45.686100 183 180 163 
15.907089 -15.293532 45.760345 176 173 157 
15.972092 -15.293532 45.760345 152 150 135 
16.106897 -15.360099 45.959522 113 118 110 
16.163387 -15.351747 45.934528 115 120 112 
16.237467 -15.360099 45.959522 109 123 112 
16.311626 -15.368461 45.984539 106 123 111 
-32.526768 -36.940693 111.003418 201 197 178 
-32.157803 -36.699566 110.278854 200 196 178 
-31.629526 -36.273376 108.998192 199 195 177 
-31.232893 -35.994709 108.160820 197 194 175 
-30.886063 -35.948681 108.022507 193 190 171 
-30.732616 -35.948681 108.022507 191 188 168 
-30.462309 -35.811295 107.609680 190 187 166 
-30.079542 -35.539654 106.793427 189 185 166 
-30.118225 -35.765736 107.472771 185 181 165 
-29.965561 -35.765736 107.472771 163 160 143 
-29.850874 -35.811295 107.609680 98 98 81 
-29.547455 -35.629742 107.064133 107 108 91 
-29.321047 -35.539654 106.793427 108 115 94 
-29.169348 -35.539654 106.793427 117 125 103 
-29.091204 -35.629742 107.064133 127 136 115 
-28.720711 -35.360840 106.256104 130 140 120 
-28.426748 -35.183815 105.724152 128 141 120 
-28.276567 -35.183815 105.724152 125 141 119 
-28.161633 -35.227905 105.856644 124 140 119 
-28.081644 -35.316418 106.122612 122 138 121 
-27.721939 -35.052204 105.328674 122 137 120 
-27.815094 -35.360840 106.256104 120 135 118 
-27.664160 -35.360840 106.256104 120 135 118 
12.639998 -15.446081 46.414066 111 124 107 
13.401376 -15.336535 46.084888 129 127 142 
13.753803 -14.937230 44.885017 172 170 142 
13.881321 -14.937230 44.885017 182 181 165 
13.900763 -14.889760 44.742374 185 184 169 
13.942164 -14.866138 44.671391 186 187 173 
14.013031 -14.874003 44.695026 185 186 171 
14.106375 -14.905550 44.789818 183 183 169 
14.200115 -14.937230 44.885017 181 182 166 
14.381123 -14.992996 45.052586 183 180 164 
14.452827 -15.000997 45.076626 182 179 163 
14.612079 -15.033084 45.173050 180 178 163 
14.787862 -15.081474 45.318455 153 154 147 
14.844274 -15.073387 45.294155 156 162 182 
14.916612 -15.081474 45.318455 161 167 187 
15.053436 -15.089569 45.342781 145 152 171 
15.125964 -15.097673 45.367130 150 154 155 
15.222151 -15.065310 45.269882 182 183 172 
15.327527 -15.105785 45.391510 182 183 169 
15.350762 -15.065310 45.269882 182 183 168 
15.415068 -15.065310 45.269882 183 181 163 
15.638609 -15.220285 45.735573 183 181 163 
15.703576 -15.220285 45.735573 183 181 163 
15.768543 -15.220285 45.735573 183 180 162 
15.824943 -15.212049 45.710823 183 180 163 
15.924342 -15.245048 45.809978 174 172 154 
15.989415 -15.245048 45.809978 148 147 131 
16.115665 -15.303140 45.984539 114 121 112 
16.172182 -15.294813 45.959522 114 121 112 
16.237467 -15.294813 45.959522 108 123 112 
16.311626 -15.303140 45.984539 107 124 112 
-32.526768 -36.783012 111.003418 201 197 178 
-32.074059 -36.447750 109.991669 201 197 178 
-31.629526 -36.118546 108.998192 200 196 177 
-31.232893 -35.841068 108.160820 197 194 175 
-30.960325 -35.703918 107.746941 196 193 174 
-30.886063 -35.795235 108.022507 193 190 171 
-30.732616 -35.795235 108.022507 191 188 168 
-30.540119 -35.749519 107.884544 190 187 166 
-30.117619 -35.432751 106.928604 189 186 165 
-30.079954 -35.567818 107.336212 186 182 163 
-29.965561 -35.613071 107.472771 170 167 148 
-29.850874 -35.658436 107.609680 99 97 78 
-29.547455 -35.477661 107.064133 105 103 85 
-29.321047 -35.387955 106.793427 107 114 93 
-29.169348 -35.387955 106.793427 114 123 101 
-29.017649 -35.387955 106.793427 125 135 113 
-28.756884 -35.254250 106.389923 130 140 120 
-28.462370 -35.077534 105.856644 129 141 121 
-28.312002 -35.077534 105.856644 127 142 120 
-28.161633 -35.077534 105.856644 125 141 120 
-28.116966 -35.209904 106.256104 123 139 122 
-27.966030 -35.209904 106.256104 122 138 121 
-27.955753 -35.387955 106.793427 121 136 119 
-27.733931 -35.298706 106.524086 120 135 118 
12.653904 -15.397070 46.465126 111 122 107 
13.401376 -15.271071 46.084888 131 128 143 
13.753803 -14.873471 44.885017 172 170 143 
13.881321 -14.873471 44.885017 183 181 165 
13.915504 -14.841927 44.789818 185 185 169 
13.964319 -14.826204 44.742374 186 187 171 
14.035309 -14.834061 44.766083 185 185 170 
14.121349 -14.857682 44.837368 183 183 168 
14.215221 -14.889295 44.932766 181 182 166 
14.396479 -14.944941 45.100693 182 179 163 
14.619897 -14.976925 45.197216 179 178 163 
14.787862 -15.017099 45.318455 150 154 150 
14.852237 -15.017099 45.318455 153 162 181 
14.924618 -15.025160 45.342781 159 167 187 
15.061521 -15.033230 45.367130 142 151 170 
15.134092 -15.041307 45.391510 153 156 155 
15.222151 -15.001004 45.269882 182 183 172 
15.319296 -15.033230 45.367130 182 183 169 
15.350762 -15.001004 45.269882 182 183 168 
15.415068 -15.001004 45.269882 183 182 164 
15.655561 -15.171747 45.785149 182 181 164 
15.720599 -15.171747 45.785149 183 181 163 
15.785636 -15.171747 45.785149 183 180 162 
15.842088 -15.163528 45.760345 183 180 162 
15.932982 -15.188211 45.834835 172 169 151 
16.006777 -15.196457 45.859718 145 144 129 
16.124443 -15.246119 46.009586 116 120 113 
16.172182 -15.229528 45.959522 116 121 114 
16.237467 -15.229528 45.959522 108 124 113 
16.302752 -15.229528 45.959522 107 124 113 
-32.032349 -36.244316 109.848633 201 197 178 
-31.629526 -35.963715 108.998192 200 196 177 
-31.272934 -35.733177 108.299484 198 195 176 
-31.039507 -35.641788 108.022507 196 193 174 
-30.846617 -35.596268 107.884544 194 190 172 
-30.732616 -35.641788 108.022507 192 188 170 
-30.540119 -35.596268 107.884544 190 187 168 
-30.117619 -35.280861 106.928604 190 187 168 
-30.041782 -35.370403 107.199997 188 184 165 
-29.927485 -35.415348 107.336212 175 172 153 
-29.775015 -35.415348 107.336212 106 103 84 
-29.584951 -35.370403 107.199997 106 103 85 
-29.321047 -35.236256 106.793427 107 113 92 
-29.132517 -35.191765 106.658585 112 121 99 
-29.017649 -35.236256 106.793427 122 132 111 
-28.756884 -35.103123 106.389923 130 140 119 
-28.498081 -34.970989 105.989464 130 142 121 
-28.347525 -34.970989 105.989464 128 143 121 
-28.196968 -34.970989 105.989464 127 142 121 
-28.152378 -35.103123 106.389923 124 140 122 
-28.178699 -35.325577 107.064133 122 138 121 
-28.277494 -35.641788 108.022507 121 136 119 
-27.945370 -35.415348 107.336212 119 134 117 
12.605100 -15.432934 46.773865 103 121 105 
12.622617 -15.373347 46.593269 104 122 106 
12.667840 -15.347951 46.516300 110 123 104 
12.747956 -15.364873 46.567585 129 134 113 
12.884699 -15.213908 46.110043 165 163 133 
13.394069 -15.197317 46.059761 132 129 143 
13.753803 -14.809712 44.885017 173 171 145 
13.810224 -14.801847 44.861179 180 179 161 
13.881321 -14.809712 44.885017 183 182 165 
13.922886 -14.786142 44.813580 186 186 169 
13.979127 -14.778303 44.789818 186 187 171 
14.057658 -14.793991 44.837368 184 184 169 
14.136356 -14.809712 44.885017 183 183 167 
14.230360 -14.841256 44.980618 182 181 165 
14.627724 -14.920706 45.221413 178 177 163 
14.715593 -14.944707 45.294155 163 164 151 
14.795800 -14.960751 45.342781 151 154 154 
14.860209 -14.960751 45.342781 155 162 182 
14.924618 -14.960751 45.342781 159 166 186 
15.061521 -14.968785 45.367130 141 148 168 
15.134092 -14.976830 45.391510 154 157 154 
15.319296 -14.968785 45.367130 182 183 168 
15.358994 -14.944707 45.294155 182 182 167 
15.423333 -14.944707 45.294155 183 182 165 
15.664051 -15.114902 45.809978 182 181 165 
15.729124 -15.114902 45.809978 183 181 163 
15.794197 -15.114902 45.809978 183 180 162 
15.842088 -15.098526 45.760345 183 180 162 
15.941632 -15.131313 45.859718 170 167 149 
16.015471 -15.139532 45.884628 142 142 127 
16.124443 -15.180762 46.009586 115 121 113 
16.172182 -15.164243 45.959522 115 122 115 
16.237467 -15.164243 45.959522 108 125 114 
16.302752 -15.164243 45.959522 107 124 113 
-32.032349 -36.088276 109.848633 201 197 178 
-31.588768 -35.762737 108.857735 200 196 177 
-31.272934 -35.579338 108.299484 199 195 176 
-31.119097 -35.579338 108.299484 196 193 174 
-30.807272 -35.397812 107.746941 194 190 172 
-30.732616 -35.488342 108.022507 192 188 170 
-30.579172 -35.488342 108.022507 190 187 168 
-30.155790 -35.173492 107.064133 190 187 167 
-30.041782 -35.218128 107.199997 188 185 164 
-29.927485 -35.262878 107.336212 181 177 157 
-29.775015 -35.262878 107.336212 115 111 91 
-29.584951 -35.218128 107.199997 107 103 83 
-29.321047 -35.084557 106.793427 106 112 91 
-29.132517 -35.040260 106.658585 111 120 98 
-29.017649 -35.084557 106.793427 120 130 109 
-28.793146 -34.996071 106.524086 128 139 118 
-28.569775 -34.908031 106.256104 130 142 122 
-28.383137 -34.864178 106.122612 129 143 122 
-28.232391 -34.864178 106.122612 128 142 121 
-28.187880 -34.996071 106.524086 124 140 122 
-28.394629 -35.443020 107.884544 122 138 121 
-28.386393 -35.625011 108.438507 121 136 120 
-28.196161 -35.579338 108.299484 120 135 118 
12.545604 -15.375006 46.799778 103 121 105 
12.605100 -15.366492 46.773865 103 121 104 
12.622617 -15.307162 46.593269 104 123 105 
12.667840 -15.281875 46.516300 112 122 103 
12.747956 -15.298724 46.567585 133 136 116 
12.884699 -15.148409 46.110043 165 162 134 
13.394069 -15.131889 46.059761 134 131 145 
13.753803 -14.745954 44.885017 174 171 146 
13.888700 -14.753793 44.908878 183 181 164 
13.930276 -14.730300 44.837368 185 184 168 
13.993967 -14.730300 44.837368 186 185 169 
14.072598 -14.745954 44.885017 185 184 167 
14.151395 -14.761641 44.932766 183 182 165 
14.237942 -14.785234 45.004581 182 181 165 
14.540135 -14.832648 45.148903 179 177 161 
14.635558 -14.864427 45.245636 176 177 163 
14.803746 -14.904342 45.367130 150 155 156 
14.860209 -14.896342 45.342781 153 161 181 
14.932633 -14.904342 45.367130 153 161 182 
15.005136 -14.912351 45.391510 151 159 180 
15.069614 -14.912351 45.391510 139 147 168 
15.150374 -14.928394 45.440346 156 157 153 
15.327527 -14.912351 45.391510 183 182 165 
15.367233 -14.888350 45.318455 183 182 165 
15.664051 -15.049829 45.809978 182 181 165 
15.729124 -15.049829 45.809978 183 181 164 
15.794197 -15.049829 45.809978 182 179 162 
15.842088 -15.033524 45.760345 182 179 162 
15.941632 -15.066170 45.859718 168 165 148 
16.024176 -15.082546 45.909565 139 140 126 
16.124443 -15.115406 46.009586 115 122 114 
16.172182 -15.098958 45.959522 115 123 115 
16.228638 -15.090748 45.934528 108 125 113 
16.293886 -15.090748 45.934528 107 124 112 
-32.157803 -36.072964 110.278854 201 197 177 
-31.629526 -35.654053 108.998192 200 196 176 
-31.313080 -35.470978 108.438507 199 195 175 
-31.199095 -35.516567 108.577888 196 193 172 
-30.846617 -35.289772 107.884544 194 191 170 
-30.771967 -35.380142 108.160820 192 188 168 
-30.618326 -35.380142 108.160820 190 187 166 
-30.194059 -35.065849 107.199997 190 187 166 
-30.003706 -35.021408 107.064133 189 186 165 
-29.965561 -35.155079 107.472771 183 179 158 
-29.775015 -35.110409 107.336212 123 119 98 
-29.622543 -35.110409 107.336212 106 103 82 
-29.321047 -34.932858 106.793427 105 110 89 
-29.132517 -34.888752 106.658585 110 119 98 
-29.017649 -34.932858 106.793427 118 128 107 
-28.902489 -34.977077 106.928604 126 137 117 
-28.605757 -34.800869 106.389923 131 142 122 
-28.418839 -34.757095 106.256104 129 143 122 
-28.303505 -34.800869 106.389923 128 142 121 
-28.259151 -34.932858 106.793427 124 140 122 
-28.467342 -35.380142 108.160820 122 138 121 
-28.422880 -35.516567 108.577888 121 136 122 
-28.305027 -35.562279 108.717628 120 135 121 
12.538657 -15.300050 46.773865 103 122 103 
12.605100 -15.300050 46.773865 103 122 103 
12.622617 -15.240976 46.593269 105 123 104 
12.674820 -15.224182 46.541927 112 123 103 
12.754988 -15.240976 46.593269 133 138 118 
12.884699 -15.082910 46.110043 165 162 134 
13.401376 -15.074681 46.084888 136 133 147 
13.753803 -14.682195 44.885017 174 170 146 
13.888700 -14.690001 44.908878 180 179 163 
13.937674 -14.674397 44.861179 186 185 169 
14.001399 -14.674397 44.861179 187 185 169 
14.080079 -14.690001 44.908878 184 183 167 
14.158926 -14.705636 44.956680 182 181 165 
14.253129 -14.737008 45.052586 182 180 164 
14.555695 -14.784318 45.197216 179 177 161 
14.635558 -14.800156 45.245636 177 177 163 
14.803746 -14.839898 45.367130 150 154 158 
14.868190 -14.839898 45.367130 152 159 181 
14.940658 -14.847873 45.391510 152 159 181 
15.021279 -14.863847 45.440346 149 157 178 
15.077716 -14.855855 45.415913 137 144 165 
15.166692 -14.879855 45.489285 156 157 150 
15.335768 -14.855855 45.415913 182 183 165 
15.383739 -14.839898 45.367130 182 182 165 
15.664051 -14.984756 45.809978 183 181 165 
15.729124 -14.984756 45.809978 183 181 165 
15.794197 -14.984756 45.809978 182 179 163 
15.842088 -14.968521 45.760345 181 178 162 
15.941632 -15.001026 45.859718 165 163 146 
16.024176 -15.017332 45.909565 135 138 124 
16.124443 -15.050050 46.009586 114 123 112 
16.163387 -15.025498 45.934528 113 124 113 
16.228638 -15.025498 45.934528 107 126 112 
16.293886 -15.025498 45.934528 106 125 111 
-32.612480 -36.247559 111.295914 201 197 177 
-32.326611 -36.104851 110.857742 200 196 176 
-31.670391 -35.545086 109.139015 199 195 175 
-31.353329 -35.362335 108.577888 198 194 174 
-31.279505 -35.453476 108.857735 196 193 172 
-30.886063 -35.181454 108.022507 194 191 170 
-30.811419 -35.271664 108.299484 192 188 168 
-30.657579 -35.271664 108.299484 190 187 166 
-30.270889 -35.002415 107.472771 190 187 166 
-30.003706 -34.869324 107.064133 189 186 165 
-29.965561 -35.002415 107.472771 184 180 159 
-29.775015 -34.957935 107.336212 133 129 109 
-29.584951 -34.913574 107.199997 107 104 83 
-29.321047 -34.781158 106.793427 104 109 89 
-29.132517 -34.737244 106.658585 109 118 98 
-29.017649 -34.781158 106.793427 116 126 106 
-28.975843 -34.913574 107.199997 125 136 116 
-28.641830 -34.693439 106.524086 130 141 121 
-28.454632 -34.649742 106.389923 131 142 122 
-28.374979 -34.737244 106.658585 129 140 120 
-28.330784 -34.869324 107.064133 125 140 122 
-28.503839 -35.271664 108.299484 122 137 120 
-28.459459 -35.407845 108.717628 121 135 122 
-28.378073 -35.499222 108.998192 119 134 122 
12.531718 -15.225178 46.747978 104 122 103 
12.598124 -15.225178 46.747978 104 122 103 
12.622617 -15.174791 46.593269 105 124 105 
12.681807 -15.166426 46.567585 113 122 103 
12.754988 -15.174791 46.593269 136 139 120 
12.891736 -15.025613 46.135227 167 161 134 
13.401376 -15.009218 46.084888 136 133 148 
13.761115 -14.626207 44.908878 174 171 149 
13.888700 -14.626207 44.908878 182 179 163 
13.937674 -14.610673 44.861179 185 183 167 
14.001399 -14.610673 44.861179 187 184 168 
14.087568 -14.633987 44.932766 184 183 166 
14.166466 -14.649572 44.980618 182 181 165 
14.260735 -14.680841 45.076626 181 180 164 
14.279048 -14.633987 44.932766 182 179 163 
14.563486 -14.727996 45.221413 180 177 161 
14.635558 -14.735885 45.245636 177 177 163 
14.803746 -14.775455 45.367130 149 154 159 
14.876179 -14.783394 45.391510 152 159 181 
14.948690 -14.791342 45.415913 152 160 181 
15.029364 -14.807264 45.464802 147 155 176 
15.093946 -14.807264 45.464802 136 144 163 
15.223111 -14.807264 45.464802 178 179 168 
15.320677 -14.839211 45.562889 183 182 167 
15.352276 -14.807264 45.464802 182 181 165 
15.408566 -14.799299 45.440346 182 181 165 
15.672550 -14.927779 45.834835 183 180 164 
15.729124 -14.919683 45.809978 183 180 164 
15.794197 -14.919683 45.809978 182 179 162 
